419664.010418	8914891.7035	172.836709	172.357043616
419603.782816	8915054.05875	167.517709	168.129981371
419543.624458	8915216.30176	169.476708	169.913014288
419483.514085	8915378.65795	170.799708	171.051103163
419423.405895	8915541.01877	171.009708	171.205705699
419484.601871	8914728.94682	171.283709	171.30525677
419423.868827	8914891.46224	168.189709	168.155714413
419363.138152	8915053.98235	166.807709	166.721900534
419302.361646	8915216.62264	157.272708	158.337369759
419241.560528	8915379.15769	157.973708	157.796638824
419180.724221	8915541.70022	157.890708	157.794158426
419610.436551	8914964.47553	170.722709	170.497431238
419549.720041	8915127.20643	163.836708	163.856546888
419489.005935	8915289.94202	169.743708	169.625297633
419428.200215	8915452.68922	169.900708	169.502928112
419367.284131	8915615.44945	170.250708	169.991402484
419604.67227	8914900.98889	172.399709	172.180842594
419542.825436	8915063.57917	163.991709	164.630864413
419480.943686	8915226.17704	166.754708	167.059216976
419419.075257	8915388.66701	167.783708	167.949239811
419357.292964	8915551.26757	168.715708	168.194552631
419577.247772	8914833.38655	173.154709	172.717381348
419516.453096	8914995.90089	168.425709	168.031654044
419455.560964	8915158.09149	162.903708	163.359240739
419394.617175	8915320.06693	166.477708	166.188140674
419333.581728	8915482.05401	163.595708	163.958413914
419272.489924	8915644.27403	164.518708	NaN
419509.529269	8914610.81923	172.505709	172.219378369
419448.543798	8914772.90327	170.691709	170.088034964
419387.496048	8914934.88487	167.823709	167.672133071
419326.270783	8915096.99639	164.558709	163.854057256
419264.953935	8915259.11961	158.265708	158.206386518
419203.583167	8915421.25175	156.667708	156.848744651
419142.241959	8915583.49859	159.170708	159.314155596
419638.817828	8914849.79104	173.556709	173.186392414
419578.670743	8915011.6941	168.298709	168.267166778
419518.727831	8915174.03463	165.320708	166.772696577
419458.918692	8915336.37005	169.404708	169.668400921
419399.109262	8915498.9341	170.185708	169.398310781
419339.299603	8915661.72676	169.808708	NaN
419641.823272	8915001.11918	170.222709	170.516720668
419581.016799	8915164.19058	166.628708	167.20029204
419520.252837	8915327.03988	171.746708	171.788181166
419459.51252	8915489.66845	171.424708	171.371939008
419398.800557	8915651.62821	171.348708	NaN
